ply
format ascii 1.0
element vertex 2267
property float x
property float y
property float z
property uchar red
property uchar green
property uchar blue
element face 0
property list uint8 int32 vertex_index
end_header
98 464 83 77 58 46
98 464 84 78 59 46
98 464 85 81 62 48
99 464 86 87 67 52
99 464 87 93 72 56
99 464 88 99 78 60
99 464 89 108 85 65
100 464 90 117 92 71
100 464 91 125 99 76
100 464 92 133 106 82
100 464 93 139 111 87
101 464 94 146 115 92
101 464 95 152 120 97
97 465 80 78 62 54
97 465 81 76 60 52
97 465 82 76 59 50
98 465 83 76 59 49
98 465 84 77 60 49
98 465 85 79 62 50
98 465 86 84 66 52
99 465 87 90 71 56
99 465 88 97 77 60
99 465 89 106 84 66
100 465 90 114 90 71
100 465 91 122 97 76
100 465 92 129 103 81
100 465 93 135 108 86
101 465 94 143 113 92
101 465 95 149 117 95
97 466 80 80 64 58
97 466 81 78 62 55
97 466 82 76 60 52
98 466 83 76 60 51
98 466 84 77 62 52
98 466 85 79 64 52
98 466 86 83 67 53
99 466 87 88 70 56
99 466 88 96 76 61
99 466 89 103 82 66
100 466 90 111 89 71
100 466 91 117 95 75
100 466 92 124 100 80
100 466 93 130 104 83
101 466 94 138 109 89
101 466 95 144 113 91
97 467 80 79 66 60
97 467 81 78 65 59
97 467 82 76 63 56
97 467 83 75 62 54
98 467 84 76 63 54
98 467 85 78 64 53
98 467 86 82 67 55
99 467 87 86 69 56
99 467 88 92 74 60
99 467 89 98 79 64
100 467 90 105 85 68
100 467 91 112 91 73
100 467 92 117 96 77
100 467 93 124 100 80
101 467 94 130 104 84
101 467 95 136 107 86
97 468 80 81 69 64
97 468 81 78 67 62
97 468 82 76 65 60
97 468 83 76 64 58
98 468 84 77 64 56
98 468 85 77 64 54
98 468 86 80 66 56
99 468 87 84 69 57
99 468 88 89 73 59
99 468 89 94 76 62
100 468 90 100 82 67
100 468 91 106 87 71
100 468 92 112 92 74
100 468 93 117 96 76
101 468 94 124 99 79
101 468 95 130 103 82
97 469 80 81 70 66
97 469 81 79 69 65
97 469 82 77 67 62
97 469 83 76 65 59
98 469 84 76 64 57
98 469 85 77 64 55
98 469 86 79 66 57
99 469 87 82 68 57
99 469 88 86 71 58
99 469 89 91 75 61
100 469 90 95 79 63
100 469 91 101 83 67
100 469 92 106 87 69
100 469 93 111 91 72
101 469 94 119 95 76
101 469 95 125 99 79
103 454 96 160 122 90
104 454 97 158 122 90
104 454 98 153 119 88
105 454 99 148 115 86
105 454 100 141 109 81
106 454 101 133 102 76
106 454 102 126 95 71
107 454 103 118 88 66
107 454 104 112 83 63
108 454 105 108 80 61
109 455 104 107 65 51
110 455 105 105 64 50
103 455 96 162 123 90
103 455 97 158 121 90
104 455 98 152 118 87
105 455 99 146 113 84
105 455 100 139 107 80
106 455 101 130 99 73
106 455 102 123 92 68
107 455 103 116 86 63
107 455 104 110 81 60
108 455 105 106 79 59
109 455 105 107 65 51
110 455 106 111 70 55
103 456 96 164 124 90
103 456 97 160 122 90
104 456 98 152 118 87
104 456 99 145 112 83
105 456 100 137 105 78
105 456 101 129 98 72
106 456 102 123 92 67
106 456 103 116 87 62
107 456 104 110 82 59
107 456 105 106 79 58
108 456 106 104 78 59
109 456 105 108 67 52
102 457 96 163 124 91
102 457 97 160 122 90
103 457 98 155 121 89
104 457 99 148 115 85
104 457 100 141 109 81
105 457 101 134 103 76
105 457 102 127 96 70
106 457 103 121 92 67
106 457 104 116 88 65
107 457 105 113 86 65
108 457 105 120 81 64
109 457 105 115 76 59
102 458 96 162 124 93
102 458 97 160 124 92
103 458 98 157 123 91
104 458 99 152 119 88
104 458 100 145 113 84
105 458 101 139 108 81
105 458 102 134 103 77
106 458 103 128 99 74
106 458 104 123 95 72
107 458 105 120 93 72
107 458 106 117 91 72
109 458 106 122 83 65
102 459 96 161 124 94
102 459 97 160 125 93
103 459 98 160 126 94
104 459 99 155 122 90
104 459 100 150 118 88
105 459 101 144 113 85
105 459 102 139 108 82
105 459 103 134 105 80
106 459 104 130 102 79
107 459 105 127 100 79
107 459 106 124 98 79
108 459 107 122 96 78
102 460 96 160 125 95
102 460 97 161 126 95
103 460 98 161 127 95
103 460 99 158 125 93
104 460 100 153 121 91
104 460 101 149 118 91
105 460 102 146 115 89
105 460 103 141 112 87
106 460 104 138 110 87
106 460 105 135 108 87
107 460 105 135 102 85
108 460 106 131 96 75
102 461 96 161 126 97
102 461 97 161 126 96
102 461 98 162 128 96
103 461 99 160 127 96
103 461 100 156 124 95
104 461 101 153 122 95
105 461 102 150 120 95
105 461 103 147 118 93
105 461 104 144 116 92
106 461 105 141 114 92
107 461 105 138 107 88
108 461 106 138 105 84
101 462 96 160 124 97
102 462 97 160 125 96
102 462 98 161 127 95
103 462 99 161 128 96
103 462 100 158 126 96
104 462 101 156 125 98
104 462 102 154 123 98
105 462 103 152 123 98
105 462 104 150 122 98
106 462 105 147 120 97
106 462 106 144 118 97
107 462 107 141 115 96
101 463 96 157 122 97
102 463 97 157 123 95
102 463 98 159 125 93
103 463 99 161 127 94
103 463 100 160 127 96
104 463 101 159 127 99
104 463 102 157 126 100
105 463 103 156 125 100
105 463 104 154 125 100
106 463 105 152 124 101
106 463 106 149 122 101
107 463 106 157 124 106
101 464 96 154 121 97
102 464 97 154 120 93
102 464 98 157 122 90
103 464 99 161 126 92
103 464 100 161 127 95
104 464 101 161 128 99
104 464 102 160 128 101
104 464 103 159 128 102
105 464 104 159 128 104
105 464 105 156 127 105
106 464 106 153 126 105
107 464 106 164 131 113
101 465 96 150 118 95
101 465 97 150 117 90
102 465 98 154 119 87
103 465 99 159 124 91
103 465 100 160 126 94
104 465 101 161 128 98
104 465 102 161 129 101
104 465 103 162 130 104
105 465 104 161 130 106
105 465 105 159 129 107
106 465 106 155 128 107
107 465 106 169 135 117
101 466 96 146 115 92
101 466 97 146 113 86
102 466 98 150 116 85
103 466 99 157 122 90
103 466 100 159 125 94
103 466 101 160 127 98
104 466 102 161 129 101
104 466 103 162 131 105
105 466 104 162 131 107
105 466 105 159 130 108
106 466 106 157 130 109
106 466 107 152 126 106
101 467 96 140 110 87
101 467 97 143 111 85
102 467 98 147 113 83
103 467 99 154 119 88
103 467 100 157 123 92
103 467 101 159 126 97
104 467 102 161 129 102
104 467 103 162 131 105
105 467 104 163 132 108
105 467 105 161 131 108
105 467 106 157 130 108
106 467 107 154 127 106
101 468 96 136 107 85
101 468 97 143 112 87
102 468 98 147 113 84
102 468 99 154 119 88
103 468 100 158 124 93
103 468 101 160 127 97
104 468 102 163 131 104
104 468 103 164 133 107
104 468 104 165 134 109
105 468 105 165 136 111
105 468 106 163 135 112
106 468 107 159 132 111
101 469 96 132 105 83
102 469 97 145 114 90
102 469 98 148 114 85
103 469 99 154 119 88
103 469 100 159 125 94
103 469 101 162 129 99
104 469 102 164 132 104
104 469 103 166 135 108
105 469 104 167 136 110
105 469 105 168 139 114
105 469 106 168 140 117
106 469 107 165 137 116
109 469 53 109 88 71
111 469 53 105 82 65
109 469 54 102 81 64
110 469 54 99 75 57
107 470 54 99 79 62
109 470 54 99 79 62
107 470 55 90 70 53
108 470 55 90 70 53
107 470 56 81 61 44
108 470 56 81 61 44
106 470 57 74 54 37
107 470 57 74 54 37
106 470 58 69 49 32
107 470 58 69 49 32
105 470 59 70 49 32
107 470 59 70 49 32
105 470 60 71 50 32
106 470 60 71 50 32
105 470 61 75 52 36
106 470 61 75 52 36
103 470 62 82 58 43
104 470 62 82 58 43
102 470 63 87 62 48
103 470 63 87 62 48
109 470 53 108 88 71
111 470 53 104 81 64
109 470 54 99 79 62
110 470 54 100 78 61
107 471 54 99 79 61
109 471 54 99 79 61
107 471 55 91 71 54
108 471 55 91 71 54
107 471 56 83 63 46
108 471 56 83 63 46
106 471 57 77 57 40
108 471 57 77 57 40
106 471 58 73 53 36
107 471 58 73 53 36
106 471 59 71 51 34
107 471 59 71 51 34
105 471 60 73 52 34
107 471 60 73 52 34
105 471 61 76 53 37
106 471 61 76 53 37
104 471 62 82 58 43
102 471 63 88 63 49
103 471 63 88 63 49
109 470 54 99 79 62
110 470 53 109 88 71
109 470 54 99 79 62
110 471 54 99 78 61
108 471 55 91 71 54
109 471 55 93 72 54
108 471 56 83 63 46
109 472 55 92 72 55
107 472 56 85 65 48
108 472 56 85 65 48
107 472 57 80 60 43
108 472 57 80 60 43
107 472 58 76 56 39
108 472 58 76 56 39
106 472 59 74 54 37
108 472 59 74 54 37
106 472 60 74 54 36
107 472 60 74 54 36
106 472 61 75 54 37
107 472 61 75 54 37
105 472 62 82 58 43
103 472 63 88 63 49
104 472 63 88 63 49
109 471 54 99 79 61
110 471 54 99 78 61
109 471 54 99 79 61
110 471 54 99 78 61
108 471 55 91 71 54
109 472 55 92 72 55
108 472 56 85 65 48
109 473 55 93 73 55
107 472 57 80 60 43
109 473 56 87 67 50
107 473 57 82 62 45
108 473 57 82 62 45
107 473 58 78 58 41
109 473 58 78 58 41
107 473 59 77 57 40
108 473 59 77 57 40
107 473 60 76 56 39
108 473 60 76 56 39
107 473 61 78 57 40
107 474 60 79 59 42
105 473 62 85 61 45
106 473 62 85 61 45
104 473 63 91 66 51
107 474 60 79 59 42
108 474 60 79 59 42
106 474 61 81 60 43
107 474 61 81 60 43
105 474 62 88 64 47
106 474 62 88 64 47
104 474 63 94 69 53
105 474 63 94 69 53
107 475 60 83 63 46
108 475 60 83 63 46
106 475 61 84 63 46
107 475 61 84 63 46
105 475 62 91 67 50
106 475 62 91 67 50
104 475 63 97 72 56
105 475 63 97 72 56
107 476 60 87 67 50
108 476 60 87 67 50
106 476 61 88 67 50
107 476 61 88 67 50
105 476 62 95 71 55
106 476 62 95 71 55
105 476 63 101 76 60
107 477 60 90 70 53
108 477 60 90 70 53
106 477 61 92 71 54
108 477 61 92 71 54
105 477 62 99 75 59
107 477 62 99 75 59
105 477 63 105 80 64
106 477 63 105 80 64
107 478 60 94 74 56
108 478 60 94 74 56
106 478 61 96 75 58
108 478 61 96 75 58
106 478 62 103 79 63
107 478 62 103 79 63
105 478 63 109 84 68
106 478 63 109 84 68
107 479 60 98 78 59
108 479 60 98 78 59
106 479 61 100 79 61
108 479 61 100 79 61
106 479 62 107 83 66
107 479 62 107 83 66
105 479 63 113 87 70
106 479 63 113 87 70
107 480 60 102 82 63
108 480 60 102 82 63
106 480 61 104 83 64
108 480 61 104 83 64
106 480 62 112 87 69
107 480 62 112 87 69
106 480 63 118 91 73
107 480 63 118 91 73
107 481 61 105 85 66
108 481 60 105 85 66
107 480 62 111 85 67
108 481 61 107 86 67
106 481 62 115 90 72
107 481 62 115 90 72
106 481 63 122 95 77
107 481 63 122 95 77
100 470 64 92 65 51
101 470 64 92 65 51
99 470 65 95 68 55
97 470 66 97 70 58
97 470 67 97 70 59
97 470 68 96 70 60
97 470 69 95 70 61
97 470 70 94 71 61
97 470 71 93 71 63
97 470 72 93 72 66
97 470 73 91 72 67
97 470 74 90 74 69
97 470 75 90 75 71
96 470 76 89 75 72
97 470 77 89 75 73
97 470 78 87 75 71
97 470 79 85 74 70
100 471 64 92 67 52
101 471 64 92 67 52
99 471 65 96 69 56
98 471 66 99 72 60
98 471 67 99 72 61
97 471 68 97 71 61
97 471 69 95 70 61
97 471 70 94 71 62
97 471 71 93 71 64
97 471 72 92 72 66
97 471 73 91 72 67
97 471 74 90 74 69
97 471 75 90 75 71
97 471 76 89 75 72
97 471 77 88 76 73
97 471 78 87 76 73
97 471 79 85 75 72
101 472 64 93 69 54
102 472 64 93 69 54
99 472 65 97 72 58
100 472 65 97 72 58
98 472 66 102 75 63
98 472 67 101 74 63
98 472 68 99 73 63
98 472 69 97 72 63
98 472 70 95 71 64
97 472 71 93 71 64
97 472 72 92 71 65
97 472 73 91 72 67
97 472 74 90 74 69
97 472 75 90 75 71
97 472 76 88 76 72
97 472 77 87 76 73
97 472 78 86 76 72
97 472 79 86 76 72
102 473 64 96 72 57
100 473 65 101 76 62
99 473 66 105 78 66
98 473 67 103 76 65
98 473 68 100 74 64
98 473 69 98 73 64
98 473 70 95 72 63
98 473 71 93 71 64
98 473 72 92 71 65
98 473 73 90 71 66
98 473 74 89 73 68
98 473 75 89 74 70
97 473 76 89 75 72
97 473 77 88 76 73
97 473 78 87 76 73
98 473 79 86 76 73
102 474 64 99 75 60
103 474 64 99 75 60
101 474 65 104 79 65
100 474 66 107 80 68
99 474 67 105 78 67
99 474 68 102 76 66
99 474 69 99 74 65
99 474 70 96 73 63
99 474 71 93 71 63
98 474 72 92 71 65
98 474 73 90 71 66
98 474 74 88 72 67
98 474 75 88 73 69
98 474 76 88 74 71
98 474 77 89 75 73
98 474 78 88 76 72
98 474 79 87 76 72
102 475 64 103 78 62
103 475 64 103 78 62
102 475 65 108 81 67
101 475 66 111 83 70
100 475 67 109 81 69
100 475 68 104 77 66
99 475 69 101 75 65
99 475 70 96 73 63
99 475 71 93 71 62
99 475 72 90 70 63
99 475 73 89 70 64
99 475 74 88 71 65
99 475 75 88 72 67
98 475 76 88 73 69
98 475 77 88 74 71
98 475 78 88 76 72
98 475 79 87 76 72
103 476 64 108 82 65
104 476 64 108 82 65
102 476 65 112 84 69
103 476 65 112 84 69
101 476 66 114 86 72
101 476 67 111 83 70
100 476 68 107 79 67
100 476 69 102 76 65
100 476 70 98 74 63
100 476 71 93 71 61
100 476 72 90 70 62
100 476 73 88 70 62
99 476 74 88 70 63
99 476 75 87 71 65
99 476 76 87 72 67
99 476 77 87 75 70
99 476 78 88 76 71
99 476 79 87 76 71
104 477 64 111 85 69
103 477 65 115 87 72
102 477 66 118 89 74
101 477 67 114 85 71
101 477 68 109 81 68
101 477 69 104 77 65
101 477 70 98 74 62
101 477 71 94 71 60
100 477 72 90 69 60
100 477 73 89 69 62
100 477 74 88 69 62
100 477 75 88 71 64
100 477 76 87 72 66
100 477 77 88 75 69
100 477 78 88 76 70
99 477 79 89 77 71
104 478 64 115 89 73
105 478 64 115 89 73
103 478 65 119 91 76
104 478 65 119 91 76
103 478 66 122 92 76
102 478 67 118 88 73
102 478 68 113 84 70
102 478 69 107 79 66
102 478 70 101 75 63
101 478 71 97 73 61
101 478 72 92 70 60
101 478 73 90 69 61
101 478 74 89 69 61
101 478 75 89 71 63
100 478 76 89 73 66
100 478 77 89 74 68
100 478 78 90 77 70
100 478 79 91 78 71
104 479 64 119 92 76
105 479 64 119 92 76
104 479 65 124 95 79
104 479 66 126 96 80
103 479 67 123 91 76
103 479 68 117 87 72
103 479 69 111 82 68
102 479 70 104 77 64
102 479 71 99 75 62
102 479 72 95 72 61
102 479 73 93 71 62
101 479 74 91 70 62
101 479 75 91 71 63
101 479 76 91 74 66
101 479 77 91 75 68
101 479 78 92 77 71
101 479 79 93 79 72
105 480 64 126 98 81
106 480 64 126 98 81
105 480 65 129 100 83
104 480 66 132 100 84
104 480 67 129 96 80
104 480 68 122 90 75
103 480 69 116 86 71
103 480 70 109 81 67
103 480 71 103 77 64
103 480 72 99 75 63
102 480 73 95 73 63
102 480 74 95 73 64
102 480 75 95 74 65
102 480 76 94 76 67
101 480 77 95 78 70
101 480 78 95 79 72
101 480 79 95 80 73
105 481 64 131 103 85
106 481 64 131 103 85
105 481 65 135 105 87
105 481 66 138 105 88
104 481 67 134 100 83
104 481 68 128 95 79
104 481 69 120 90 74
104 481 70 114 85 71
103 481 71 107 80 67
103 481 72 103 78 66
103 481 73 99 76 65
103 481 74 98 76 66
102 481 75 97 76 67
102 481 76 97 79 70
102 481 77 98 80 72
102 481 78 98 81 74
101 481 79 98 82 75
106 482 64 136 109 89
106 482 65 140 110 91
105 482 66 143 110 92
106 482 66 143 110 92
105 482 67 139 105 87
105 482 68 132 99 82
104 482 69 126 94 79
104 482 70 118 89 75
104 482 71 112 84 71
104 482 72 107 81 69
103 482 73 104 80 68
103 482 74 101 79 68
103 482 75 100 79 69
102 482 76 101 82 72
102 482 77 101 83 74
102 482 78 102 84 76
102 482 79 102 85 77
106 483 64 141 114 94
107 483 64 141 114 94
106 483 65 145 115 96
107 483 65 145 115 96
106 483 66 148 115 97
105 483 67 144 110 92
106 483 67 144 110 92
105 483 68 137 104 87
105 483 69 130 99 82
105 483 70 121 92 77
105 483 71 116 88 74
104 483 72 110 85 70
104 483 73 107 83 69
104 483 74 105 82 69
103 483 75 104 82 70
103 483 76 104 84 72
103 483 77 104 85 74
103 483 78 104 86 75
103 483 79 105 87 76
106 484 64 140 113 93
107 484 64 140 113 93
106 484 65 143 114 95
107 484 65 143 114 95
106 484 66 146 115 96
107 484 66 146 115 96
106 484 67 141 108 90
105 484 68 135 104 86
106 484 68 135 104 86
105 484 69 129 99 82
106 484 69 129 99 82
105 484 70 123 94 78
106 484 70 123 94 78
105 484 71 118 90 75
106 484 71 118 90 75
105 484 72 113 88 72
104 484 73 110 86 70
105 484 73 110 86 70
104 484 74 108 85 70
105 484 74 108 85 70
104 484 75 108 85 71
104 484 76 108 86 73
104 484 77 108 88 74
103 484 78 108 89 75
104 484 78 108 89 75
103 484 79 108 89 75
104 484 79 108 89 75
106 485 64 138 109 90
107 485 64 138 109 90
106 485 65 141 111 92
107 485 65 141 111 92
106 485 66 143 112 93
107 485 66 143 112 93
106 485 67 138 107 88
106 485 68 133 102 83
105 485 69 128 98 80
106 485 69 128 98 80
105 485 70 123 94 77
106 485 70 123 94 77
105 485 71 119 91 75
106 485 71 119 91 75
105 485 72 116 90 73
106 485 72 116 90 73
105 485 73 114 89 72
106 485 73 114 89 72
104 485 74 112 88 72
105 485 74 112 88 72
104 485 75 111 88 73
105 485 75 111 88 73
104 485 76 112 89 74
105 485 76 112 89 74
104 485 77 111 89 75
105 485 77 111 89 75
104 485 78 111 91 76
105 485 78 111 91 76
104 485 79 111 91 76
105 485 79 111 91 76
97 470 80 82 72 69
97 470 81 80 70 66
97 470 82 78 68 63
98 470 83 76 66 60
98 470 84 76 65 58
98 470 85 76 64 56
99 470 86 78 65 56
99 470 87 79 66 56
99 470 88 83 69 57
99 470 89 87 72 58
100 470 90 92 76 60
100 470 91 97 81 64
100 470 92 102 85 67
101 470 93 107 87 69
101 470 94 114 91 73
101 470 95 121 96 77
97 471 80 83 73 70
97 471 81 81 71 67
97 471 82 79 69 65
98 471 83 77 67 62
98 471 84 76 65 59
98 471 85 77 65 57
99 471 86 78 65 57
99 471 87 79 66 56
99 471 88 82 68 56
100 471 89 86 71 58
100 471 90 90 74 59
100 471 91 94 78 62
100 471 92 99 82 64
101 471 93 104 84 66
101 471 94 112 89 71
101 471 95 119 94 75
97 472 80 84 74 70
97 472 81 82 72 69
98 472 82 80 70 67
98 472 83 78 68 64
98 472 84 77 66 60
99 472 85 77 65 57
99 472 86 78 65 56
99 472 87 79 66 56
100 472 88 81 67 55
100 472 89 85 70 57
100 472 90 90 74 60
100 472 91 93 76 61
101 472 92 98 80 63
101 472 93 103 83 65
101 472 94 111 88 70
101 472 95 118 93 74
98 473 80 85 75 72
98 473 81 83 73 69
98 473 82 81 71 67
98 473 83 79 69 64
99 473 84 78 67 61
99 473 85 78 66 58
99 473 86 79 66 58
99 473 87 79 66 56
100 473 88 82 68 56
100 473 89 86 71 58
100 473 90 90 74 59
101 473 91 94 78 62
101 473 92 99 81 64
101 473 93 104 84 66
101 473 94 111 89 70
102 473 95 117 93 74
98 474 80 85 75 72
98 474 81 84 74 70
98 474 82 82 72 67
99 474 83 80 70 64
99 474 84 80 69 62
99 474 85 80 68 60
99 474 86 81 68 59
100 474 87 81 68 58
100 474 88 84 70 58
100 474 89 88 73 59
101 474 90 93 77 61
101 474 91 98 81 64
101 474 92 102 84 67
101 474 93 106 87 69
102 474 94 112 91 72
102 474 95 118 95 75
99 475 80 86 75 71
99 475 81 84 74 69
99 475 82 83 73 68
99 475 83 83 72 66
99 475 84 81 70 63
99 475 85 81 69 60
100 475 86 82 70 61
100 475 87 84 71 60
100 475 88 88 73 60
101 475 89 92 76 62
101 475 90 96 79 64
101 475 91 101 83 67
101 475 92 106 87 69
102 475 93 111 91 73
102 475 94 115 94 75
102 475 95 119 97 77
99 476 80 87 76 71
99 476 81 86 75 70
99 476 82 85 74 69
99 476 83 84 73 67
100 476 84 83 72 64
100 476 85 84 72 62
100 476 86 84 72 62
100 476 87 87 73 61
101 476 88 91 76 62
101 476 89 96 78 64
101 476 90 100 82 67
101 476 91 105 86 70
101 476 92 111 91 72
102 476 93 116 95 76
102 476 94 118 97 78
102 476 95 122 100 80
100 477 80 89 77 71
100 477 81 88 76 70
100 477 82 88 76 70
100 477 83 87 75 68
100 477 84 86 74 65
100 477 85 86 74 63
100 477 86 87 74 63
101 477 87 90 76 63
101 477 88 94 77 63
101 477 89 99 80 65
101 477 90 104 85 69
101 477 91 109 89 72
102 477 92 115 94 75
102 477 93 119 98 78
102 477 94 123 101 81
103 477 95 125 103 83
100 478 80 91 78 71
100 478 81 91 78 71
100 478 82 90 77 70
100 478 83 90 77 69
100 478 84 89 76 66
101 478 85 88 75 63
101 478 86 90 76 64
101 478 87 93 78 64
101 478 88 97 79 64
101 478 89 102 83 67
102 478 90 107 87 70
102 478 91 113 92 74
102 478 92 119 97 77
102 478 93 122 100 79
103 478 94 125 103 82
103 478 95 127 105 84
100 479 80 93 80 72
100 479 81 92 79 71
101 479 82 93 79 71
101 479 83 92 78 69
101 479 84 91 77 66
101 479 85 91 77 64
101 479 86 92 77 64
101 479 87 94 78 63
101 479 88 98 80 64
102 479 89 102 83 66
102 479 90 109 88 70
102 479 91 114 92 73
102 479 92 120 97 76
103 479 93 124 101 79
103 479 94 127 104 82
103 479 95 129 106 84
101 480 80 95 82 73
101 480 81 94 81 72
101 480 82 95 80 72
101 480 83 94 78 69
101 480 84 93 78 66
101 480 85 93 78 65
101 480 86 94 78 64
102 480 87 96 78 63
102 480 88 98 80 63
102 480 89 102 83 65
102 480 90 109 88 69
102 480 91 114 92 72
102 480 92 120 97 75
103 480 93 124 100 77
103 480 94 126 102 79
104 480 95 127 104 81
101 481 80 98 84 75
101 481 81 97 83 74
101 481 82 96 82 72
101 481 83 95 79 69
101 481 84 94 79 67
101 481 85 94 77 65
102 481 86 95 77 63
102 481 87 95 77 61
102 481 88 98 79 61
102 481 89 102 82 63
102 481 90 107 86 66
102 481 91 112 90 69
102 481 92 117 94 71
103 481 93 122 97 74
103 481 94 123 98 75
104 481 95 125 99 76
102 482 80 101 85 77
102 482 81 99 84 76
102 482 82 97 83 73
102 482 83 96 81 70
102 482 84 96 79 68
102 482 85 95 77 64
102 482 86 94 76 61
102 482 87 95 76 59
102 482 88 98 78 60
102 482 89 101 80 60
102 482 90 105 83 62
102 482 91 109 87 65
103 482 92 114 91 68
103 482 93 119 94 72
103 482 94 120 94 71
104 482 95 119 93 69
102 483 80 103 86 75
102 483 81 102 85 74
102 483 82 100 83 72
102 483 83 98 81 69
102 483 84 97 79 66
102 483 85 94 76 62
102 483 86 93 75 59
102 483 87 94 75 58
102 483 88 96 76 57
102 483 89 99 78 58
103 483 90 102 81 60
103 483 91 106 84 63
103 483 92 110 88 66
104 483 93 114 91 68
104 483 94 114 89 66
104 483 95 113 88 65
103 484 80 107 88 74
103 484 81 106 87 73
103 484 82 104 85 71
103 484 83 101 82 68
103 484 84 99 80 65
103 484 85 97 78 62
103 484 86 95 76 59
103 484 87 94 75 57
103 484 88 95 75 56
103 484 89 97 76 56
103 484 90 100 78 57
103 484 91 103 81 60
103 484 92 105 83 62
104 484 92 105 83 62
104 484 93 107 85 63
104 484 94 107 84 61
105 484 94 107 84 61
105 484 95 107 83 60
103 485 80 110 90 75
104 485 80 110 90 75
103 485 81 108 88 72
104 485 81 108 88 72
103 485 82 106 86 70
104 485 82 106 86 70
103 485 83 104 84 68
104 485 83 104 84 68
103 485 84 101 81 65
104 485 84 101 81 65
103 485 85 99 79 62
104 485 85 99 79 62
103 485 86 97 77 59
104 485 86 97 77 59
103 485 87 96 76 57
104 485 87 96 76 57
103 485 88 96 75 56
104 485 88 96 75 56
103 485 89 96 75 55
104 485 89 96 75 55
103 485 90 98 76 55
104 485 90 98 76 55
103 485 91 101 78 57
104 485 91 101 78 57
104 485 92 101 79 58
105 485 92 101 79 58
104 485 93 103 80 59
105 485 93 103 80 59
105 485 94 102 79 57
106 485 94 102 79 57
105 485 95 101 78 56
106 485 95 101 78 56
101 470 96 131 104 83
102 470 97 146 116 93
102 470 98 150 116 88
103 470 99 156 121 90
103 470 100 161 127 96
103 470 101 164 131 101
104 470 102 166 134 105
104 470 103 168 137 109
105 470 104 170 139 113
105 470 105 172 143 118
106 470 106 174 146 123
107 470 106 179 144 126
101 471 96 130 103 82
102 471 97 147 117 94
102 471 98 152 118 90
103 471 99 157 122 92
103 471 100 162 128 98
104 471 101 165 132 102
104 471 102 167 135 106
104 471 103 169 138 110
105 471 104 172 141 115
105 471 105 175 146 121
106 471 106 179 151 128
107 471 106 183 149 130
102 472 96 130 103 82
102 472 97 148 118 95
103 472 98 154 120 93
103 472 99 158 123 94
103 472 100 163 129 99
104 472 101 166 133 103
104 472 102 168 136 107
105 472 103 170 139 111
105 472 104 174 143 117
106 472 105 179 150 125
106 472 106 184 156 133
107 472 106 188 153 134
102 473 96 128 102 81
102 473 97 147 117 94
103 473 98 154 120 94
103 473 99 157 121 94
104 473 100 162 128 98
104 473 101 166 133 103
105 473 102 168 136 107
105 473 103 170 139 112
105 473 104 173 144 118
106 473 105 179 150 125
107 473 105 193 157 139
107 473 106 188 156 135
102 474 96 127 102 81
103 474 97 141 113 90
103 474 98 153 120 95
104 474 99 156 120 93
104 474 100 161 127 97
104 474 101 165 132 102
105 474 102 167 135 106
105 474 103 169 138 110
106 474 104 174 143 117
106 474 105 179 150 125
107 474 105 193 158 140
108 474 105 206 165 151
103 475 96 128 103 82
103 475 97 141 113 90
103 475 98 154 119 95
104 475 99 156 119 92
104 475 100 161 126 96
105 475 101 166 132 101
105 475 102 168 135 105
105 475 103 170 138 109
106 475 104 175 143 116
106 475 105 179 149 124
107 475 104 189 155 137
108 475 105 203 164 150
103 476 96 129 104 83
103 476 97 140 112 89
104 476 98 151 118 93
104 476 99 154 118 91
105 476 100 160 124 95
105 476 101 166 131 100
105 476 102 168 134 103
106 476 103 171 138 108
106 476 104 174 142 114
107 476 105 177 146 120
107 476 104 191 155 142
108 476 105 195 157 144
103 477 96 129 106 85
104 477 97 135 110 88
104 477 98 143 116 93
105 477 99 148 118 95
105 477 100 154 124 100
105 477 101 160 129 104
106 477 102 166 134 107
106 477 103 169 137 110
107 477 104 172 140 114
107 477 105 175 144 120
107 476 104 191 155 142
108 476 105 195 157 144
104 478 96 129 107 86
104 478 97 131 109 88
105 478 98 135 113 92
105 478 99 137 115 94
106 478 100 141 118 97
106 478 101 148 122 101
106 478 102 155 127 104
107 478 103 161 130 107
107 478 104 163 133 110
107 478 105 165 135 113
108 477 105 177 144 125
108 477 105 177 144 125
104 479 96 129 107 85
104 479 97 129 107 85
105 479 98 128 106 84
106 479 99 127 105 84
106 479 100 126 104 84
106 479 101 132 109 88
106 479 102 138 113 92
107 479 103 144 118 96
107 479 104 149 122 99
107 479 105 152 124 102
108 478 105 165 135 114
108 478 105 165 135 114
104 480 96 127 104 81
105 480 97 128 104 81
105 480 98 127 103 80
106 480 99 126 103 80
106 480 100 125 103 81
106 480 101 124 102 81
107 480 102 125 103 82
107 480 103 129 106 84
107 480 104 133 108 86
108 480 105 137 111 89
108 479 104 151 122 102
108 478 105 165 135 114
104 481 96 123 98 75
105 481 97 122 97 74
105 481 98 122 97 75
106 481 99 122 97 75
106 481 100 121 98 76
107 481 101 120 98 76
107 481 102 121 99 77
107 481 103 123 100 78
108 481 104 126 101 79
108 481 105 129 103 81
108 479 104 151 122 102
109 479 105 153 122 104
105 482 96 117 91 67
105 482 97 116 90 67
106 482 98 115 89 67
107 482 99 116 90 68
107 482 100 116 91 69
107 482 101 115 92 69
107 482 102 117 94 71
108 482 103 118 93 71
105 483 96 110 85 62
106 483 97 109 83 60
107 483 98 107 81 59
107 483 99 108 82 60
107 483 100 110 84 63
108 483 101 110 85 64
108 483 102 111 86 65
108 483 103 112 87 66
106 484 96 103 80 57
107 484 97 102 77 55
107 484 98 102 76 54
108 484 99 103 77 55
108 484 100 104 78 57
108 484 101 106 80 60
109 484 102 106 81 61
109 484 103 107 83 63
107 485 96 99 76 54
107 485 97 98 73 52
108 485 98 98 72 51
109 485 99 99 73 52
109 485 100 100 74 54
109 485 101 100 75 55
109 485 102 102 77 57
110 483 102 108 82 67
109 486 62 123 96 74
109 486 61 127 101 76
108 486 63 122 93 74
108 486 62 120 93 73
108 486 63 122 93 74
108 486 62 120 93 73
107 486 63 122 93 74
108 486 63 122 93 74
109 487 62 123 96 73
110 487 61 124 98 71
108 487 62 118 90 71
108 487 63 119 90 71
108 487 62 118 90 71
107 487 63 119 90 71
108 487 63 119 90 71
109 488 62 121 93 71
110 488 61 127 100 71
109 488 62 121 93 71
108 488 62 119 90 71
107 488 63 118 89 70
108 488 63 118 89 70
109 489 62 120 91 72
110 489 61 129 101 71
109 489 62 120 91 72
109 489 61 121 92 73
108 489 62 120 91 72
109 489 62 120 91 72
108 489 63 119 90 71
109 489 63 119 90 71
109 490 62 121 92 73
110 490 61 130 102 72
109 490 62 121 92 73
109 490 61 124 95 76
108 490 62 121 92 73
109 490 62 121 92 73
108 490 63 119 90 71
109 490 63 119 90 71
109 491 62 123 94 75
110 491 61 132 104 75
109 491 62 123 94 75
109 491 61 126 97 78
108 491 62 123 94 75
109 491 62 123 94 75
108 491 63 121 92 73
109 491 63 121 92 73
109 492 62 126 97 78
110 492 61 134 106 77
109 492 62 126 97 78
109 492 61 129 100 81
108 492 62 126 97 78
109 492 62 126 97 78
108 492 63 122 93 74
109 492 63 122 93 74
109 493 62 128 99 80
110 493 61 135 107 78
109 493 62 128 99 80
110 493 62 132 104 79
108 493 62 128 99 80
109 493 62 128 99 80
108 493 63 124 95 76
109 493 63 124 95 76
109 494 62 132 103 84
110 494 61 137 109 80
109 494 62 135 106 87
110 494 62 133 106 81
108 494 62 132 103 84
109 494 62 132 103 84
108 494 63 128 99 80
109 494 63 128 99 80
109 495 62 136 107 88
110 495 61 139 111 82
109 495 62 136 107 88
110 495 62 137 109 84
108 495 62 136 107 88
109 495 62 136 107 88
108 495 63 133 104 85
109 495 63 133 104 85
110 496 62 140 112 89
110 496 61 141 113 84
110 496 62 140 112 89
110 496 62 140 112 89
108 496 62 140 111 92
109 496 62 140 111 92
108 496 63 139 110 91
109 496 63 139 110 91
110 496 62 140 112 89
110 497 61 142 114 85
110 497 62 143 115 90
110 497 62 143 115 90
108 497 62 144 115 96
109 497 62 144 115 96
108 497 63 145 116 97
109 497 63 145 116 97
110 497 62 143 115 90
110 497 61 142 114 85
110 497 62 143 115 90
110 498 62 148 120 95
108 498 62 148 119 100
109 498 62 148 119 100
108 498 63 150 121 102
109 498 63 150 121 102
111 498 61 143 115 85
111 499 62 148 118 91
108 499 62 151 122 103
109 499 62 151 122 103
108 499 63 153 124 105
109 499 63 153 124 105
111 499 61 145 117 88
111 499 61 145 117 88
111 499 62 148 118 91
111 499 62 148 118 91
111 499 63 153 122 99
111 500 63 147 111 84
111 500 64 152 122 99
111 500 64 152 122 99
111 500 61 156 114 85
112 500 61 143 115 87
111 500 62 150 112 83
111 500 63 147 111 84
111 500 64 152 122 99
111 500 64 152 122 99
107 486 64 124 94 75
108 486 64 124 94 75
106 486 65 125 95 76
108 486 65 125 95 76
106 486 66 127 97 78
108 486 66 127 97 78
106 486 67 126 96 77
107 486 67 126 96 77
106 486 68 124 94 75
107 486 68 124 94 75
106 486 69 121 91 72
107 486 69 121 91 72
106 486 70 117 88 70
107 486 70 117 88 70
106 486 71 114 86 69
107 486 71 114 86 69
105 486 72 111 85 67
107 486 72 111 85 67
105 486 73 110 84 66
106 486 73 110 84 66
105 486 74 108 83 66
106 486 74 108 83 66
105 486 75 107 83 67
106 486 75 107 83 67
105 486 76 109 84 68
106 486 76 109 84 68
105 486 77 108 84 68
106 486 77 108 84 68
105 486 78 108 85 70
106 486 78 108 85 70
105 486 79 109 86 71
106 486 79 109 86 71
107 487 64 119 90 71
108 487 64 119 90 71
106 487 65 119 89 70
108 487 65 119 89 70
106 487 66 117 88 69
108 487 66 117 88 69
106 487 67 116 87 68
107 487 67 116 87 68
106 487 68 114 85 66
107 487 68 114 85 66
106 487 69 111 82 63
107 487 69 111 82 63
106 487 70 107 78 59
107 487 70 107 78 59
106 487 71 104 76 58
107 487 71 104 76 58
106 487 72 102 74 56
107 487 72 102 74 56
106 487 73 100 73 54
107 487 73 100 73 54
106 487 74 98 72 53
107 487 74 98 72 53
105 487 75 98 72 54
107 487 75 98 72 54
105 487 76 98 72 53
107 487 76 98 72 53
105 487 77 99 73 55
107 487 77 99 73 55
105 487 78 100 74 56
107 487 78 100 74 56
105 487 79 101 76 58
107 487 79 101 76 58
107 488 64 116 87 68
108 488 64 116 87 68
107 488 65 114 85 66
108 488 65 114 85 66
106 488 66 111 82 63
108 488 66 111 82 63
106 488 67 109 80 61
108 488 67 109 80 61
106 488 68 106 77 58
108 488 68 106 77 58
106 488 69 102 73 54
108 488 69 102 73 54
106 488 70 99 70 51
108 488 70 99 70 51
106 488 71 96 67 48
108 488 71 96 67 48
106 488 72 94 65 46
108 488 72 94 65 46
106 488 73 92 63 44
108 488 73 92 63 44
106 488 74 91 62 43
108 488 74 91 62 43
106 488 75 91 62 43
108 488 75 91 62 43
106 488 76 93 64 45
108 488 76 93 64 45
106 488 77 95 66 47
108 488 77 95 66 47
106 488 78 97 68 49
108 488 78 97 68 49
106 488 79 101 72 53
108 488 79 101 72 53
107 489 64 116 87 68
109 489 64 116 87 68
107 489 65 113 84 65
109 489 65 113 84 65
107 489 66 110 81 62
109 489 66 110 81 62
107 489 67 106 77 58
109 489 67 106 77 58
107 489 68 102 73 54
109 489 68 102 73 54
107 489 69 97 68 49
109 489 69 97 68 49
107 489 70 93 64 45
109 489 70 93 64 45
107 489 71 89 60 41
109 489 71 89 60 41
107 489 72 86 57 38
109 489 72 86 57 38
107 489 73 84 55 36
109 489 73 84 55 36
107 489 74 83 54 35
109 489 74 83 54 35
107 489 75 84 55 36
109 489 75 84 55 36
107 489 76 86 57 38
109 489 76 86 57 38
107 489 77 89 60 41
109 489 77 89 60 41
107 489 78 93 64 45
109 489 78 93 64 45
108 489 79 99 70 51
109 489 79 99 70 51
107 490 64 116 87 68
109 490 64 116 87 68
107 490 65 112 83 64
109 490 65 112 83 64
107 490 66 107 78 59
109 490 66 107 78 59
107 490 67 103 74 55
109 490 67 103 74 55
107 490 68 98 69 50
109 490 68 98 69 50
107 490 69 94 65 46
109 490 69 94 65 46
108 490 70 88 59 40
109 490 70 88 59 40
108 490 71 84 55 36
109 490 71 84 55 36
108 490 72 81 52 33
109 490 72 81 52 33
108 490 73 79 50 31
110 490 73 79 50 31
108 490 74 78 49 30
110 490 74 78 49 30
108 490 75 79 50 31
110 490 75 79 50 31
108 490 76 81 52 33
110 490 76 81 52 33
108 490 77 85 56 37
110 490 77 85 56 37
108 490 78 91 62 43
110 490 78 91 62 43
108 490 79 97 68 49
110 490 79 97 68 49
108 491 64 116 87 68
109 491 64 116 87 68
108 491 65 111 82 63
109 491 65 111 82 63
108 491 66 106 77 58
109 491 66 106 77 58
108 491 67 102 73 54
109 491 67 102 73 54
108 491 68 97 68 49
110 491 68 97 68 49
108 491 69 93 64 45
110 491 69 93 64 45
108 491 70 88 59 40
110 491 70 88 59 40
108 491 71 84 55 36
110 491 71 84 55 36
108 491 72 80 51 32
110 491 72 80 51 32
108 491 73 79 50 31
110 491 73 79 50 31
109 491 74 78 49 30
111 491 74 78 49 30
109 491 75 79 50 31
111 491 75 79 50 31
109 491 76 81 52 33
111 491 76 81 52 33
109 491 77 85 56 37
111 491 77 85 56 37
109 491 78 90 61 42
111 491 78 90 61 42
110 491 79 95 66 47
111 491 79 95 66 47
108 492 64 116 87 68
109 492 64 116 87 68
108 492 65 111 82 63
109 492 65 111 82 63
108 492 66 105 76 57
110 492 66 105 76 57
108 492 67 102 73 54
110 492 67 102 73 54
108 492 68 99 70 51
110 492 68 99 70 51
108 492 69 95 66 47
110 492 69 95 66 47
108 492 70 91 62 43
110 492 70 91 62 43
109 492 71 88 59 40
111 492 71 88 59 40
109 492 72 85 56 37
111 492 72 85 56 37
109 492 73 83 54 35
111 492 73 83 54 35
109 492 74 82 53 34
111 492 74 82 53 34
109 492 75 83 54 35
111 492 75 83 54 35
110 492 76 84 55 36
112 492 76 84 55 36
110 492 77 87 58 39
112 492 77 87 58 39
110 492 78 91 62 43
112 492 78 91 62 43
111 492 79 95 66 47
112 492 79 95 66 47
108 493 64 118 89 70
110 493 64 118 89 70
108 493 65 113 84 65
110 493 65 113 84 65
108 493 66 108 79 60
110 493 66 108 79 60
108 493 67 106 77 58
110 493 67 106 77 58
109 493 68 103 74 55
110 493 68 103 74 55
109 493 69 101 72 53
110 493 69 101 72 53
109 493 70 98 69 50
111 493 70 98 69 50
109 493 71 96 67 48
111 493 71 96 67 48
109 493 72 93 64 45
111 493 72 93 64 45
110 493 73 92 63 44
111 493 73 92 63 44
110 493 74 90 61 42
112 493 74 90 61 42
110 493 75 90 61 42
112 493 75 90 61 42
110 493 76 90 61 42
112 493 76 90 61 42
111 493 77 91 62 43
113 493 77 91 62 43
111 493 78 93 64 45
113 493 78 93 64 45
111 493 79 95 66 47
113 493 79 95 66 47
108 494 64 122 93 74
109 494 64 122 93 74
108 494 65 118 89 70
110 494 65 118 89 70
108 494 66 113 84 65
110 494 66 113 84 65
108 494 67 112 83 64
110 494 67 112 83 64
109 494 68 110 81 62
110 494 68 110 81 62
109 494 69 108 79 60
110 494 69 108 79 60
109 494 70 106 77 58
111 494 70 106 77 58
109 494 71 104 75 56
111 494 71 104 75 56
110 494 72 102 73 54
111 494 72 102 73 54
110 494 73 101 72 53
111 494 73 101 72 53
110 494 74 99 70 51
112 494 74 99 70 51
111 494 75 97 68 49
112 494 75 97 68 49
111 494 76 96 67 48
112 494 76 96 67 48
111 494 77 96 67 48
113 494 77 96 67 48
111 494 78 96 67 48
113 494 78 96 67 48
112 494 79 97 68 49
113 494 79 97 68 49
108 495 64 129 100 81
109 495 64 129 100 81
108 495 65 125 96 77
110 495 65 125 96 77
108 495 66 121 92 73
110 495 66 121 92 73
108 495 67 120 91 72
110 495 67 120 91 72
109 495 68 118 89 70
110 495 68 118 89 70
109 495 69 117 88 69
110 495 69 117 88 69
109 495 70 114 85 66
111 495 70 114 85 66
109 495 71 112 83 64
111 495 71 112 83 64
110 495 72 110 81 62
111 495 72 110 81 62
110 495 73 108 79 60
112 495 73 108 79 60
110 495 74 106 77 58
112 495 74 106 77 58
111 495 75 104 75 56
112 495 75 104 75 56
111 495 76 102 73 54
113 495 76 102 73 54
111 495 77 101 72 53
113 495 77 101 72 53
112 495 78 100 71 52
113 495 78 100 71 52
112 495 79 99 70 51
114 495 79 99 70 51
108 496 64 137 108 89
109 496 64 137 108 89
108 496 65 134 105 86
109 496 65 134 105 86
108 496 66 131 102 83
109 496 66 131 102 83
108 496 67 129 100 81
110 496 67 129 100 81
109 496 68 127 98 79
110 496 68 127 98 79
109 496 69 124 95 76
110 496 69 124 95 76
109 496 70 121 92 73
110 496 70 121 92 73
109 496 71 118 89 70
111 496 71 118 89 70
110 496 72 115 86 67
111 496 72 115 86 67
110 496 73 113 84 65
111 496 73 113 84 65
111 496 74 110 81 62
112 496 74 110 81 62
111 496 75 108 79 60
112 496 75 108 79 60
111 496 76 106 77 58
112 496 76 106 77 58
112 496 77 105 76 57
113 496 77 105 76 57
112 496 78 104 75 56
113 496 78 104 75 56
113 496 79 104 75 56
114 496 79 104 75 56
108 497 64 145 116 97
109 497 64 145 116 97
108 497 65 143 114 95
109 497 65 143 114 95
108 497 66 141 112 93
109 497 66 141 112 93
108 497 67 138 109 90
109 497 67 138 109 90
109 497 68 134 105 86
110 497 68 134 105 86
109 497 69 130 101 82
110 497 69 130 101 82
109 497 70 125 96 77
110 497 70 125 96 77
109 497 71 121 92 73
111 497 71 121 92 73
110 497 72 117 88 69
111 497 72 117 88 69
110 497 73 114 85 66
111 497 73 114 85 66
110 497 74 111 82 63
112 497 74 111 82 63
111 497 75 109 80 61
112 497 75 109 80 61
111 497 76 108 79 60
112 497 76 108 79 60
111 497 77 108 79 60
113 497 77 108 79 60
112 497 78 109 80 61
113 497 78 109 80 61
112 497 79 110 81 62
114 497 79 110 81 62
108 498 64 151 122 103
109 498 64 151 122 103
108 498 65 150 121 102
109 498 65 150 121 102
108 498 66 149 120 101
109 498 66 149 120 101
108 498 67 144 115 96
109 498 67 144 115 96
108 498 68 139 110 91
110 498 68 139 110 91
108 498 69 134 105 86
110 498 69 134 105 86
109 498 70 127 98 79
110 498 70 127 98 79
109 498 71 122 93 74
110 498 71 122 93 74
110 498 72 117 88 69
111 498 72 117 88 69
110 498 73 113 84 65
111 498 73 113 84 65
110 498 74 111 82 63
111 498 74 111 82 63
111 498 75 110 81 62
112 498 75 110 81 62
111 498 76 110 81 62
112 498 76 110 81 62
111 498 77 112 83 64
113 498 77 112 83 64
112 498 78 115 86 67
113 498 78 115 86 67
112 498 79 118 89 70
113 498 79 118 89 70
108 499 64 155 126 107
109 499 64 155 126 107
108 499 65 155 126 107
109 499 65 155 126 107
108 499 66 153 124 105
109 499 66 153 124 105
108 499 67 148 119 100
109 499 67 148 119 100
108 499 68 142 113 94
109 499 68 142 113 94
109 499 69 135 106 87
110 499 69 135 106 87
109 499 70 129 100 81
110 499 70 129 100 81
109 499 71 123 94 75
110 499 71 123 94 75
109 499 72 118 89 70
110 499 72 118 89 70
110 499 73 114 85 66
111 499 73 114 85 66
110 499 74 113 84 65
111 499 74 113 84 65
110 499 75 112 83 64
111 499 75 112 83 64
111 499 76 114 85 66
112 499 76 114 85 66
111 499 77 118 89 70
112 499 77 118 89 70
111 499 78 123 94 75
112 499 78 123 94 75
112 499 79 129 100 81
113 499 79 129 100 81
111 500 64 152 122 99
110 500 64 156 127 108
110 500 65 155 126 107
110 500 65 155 126 107
108 500 66 154 125 106
109 500 66 154 125 106
108 500 67 149 120 101
109 500 67 149 120 101
108 500 68 143 114 95
109 500 68 143 114 95
109 500 69 136 107 88
110 500 69 136 107 88
109 500 70 130 101 82
110 500 70 130 101 82
109 500 71 125 96 77
110 500 71 125 96 77
109 500 72 120 91 72
110 500 72 120 91 72
110 500 73 118 89 70
111 500 73 118 89 70
110 500 74 118 89 70
111 500 74 118 89 70
110 500 75 119 90 71
111 500 75 119 90 71
111 500 76 122 93 74
112 500 76 122 93 74
111 500 77 127 98 79
112 500 77 127 98 79
111 500 78 134 105 86
112 500 78 134 105 86
112 500 79 141 112 93
113 500 79 141 112 93
111 500 65 156 126 104
111 501 64 147 112 84
111 500 65 156 126 104
111 501 65 151 115 88
109 501 66 151 122 103
110 501 66 151 122 103
109 501 67 147 118 99
109 501 68 142 113 94
109 501 69 137 108 89
110 501 69 137 108 89
109 501 70 132 103 84
110 501 70 132 103 84
109 501 71 129 100 81
110 501 71 129 100 81
110 501 72 126 97 78
110 501 73 125 96 77
110 501 74 126 97 78
111 501 74 126 97 78
110 501 75 129 100 81
111 501 75 129 100 81
110 501 76 133 104 85
111 501 76 133 104 85
111 501 77 139 110 91
112 501 77 139 110 91
111 501 78 146 117 98
112 501 78 146 117 98
112 501 79 154 125 106
105 486 80 109 86 70
106 486 80 109 86 70
104 486 81 108 85 68
105 486 81 108 85 68
104 486 82 107 84 68
105 486 82 107 84 68
104 486 83 106 83 67
105 486 83 106 83 67
104 486 84 105 82 66
105 486 84 105 82 66
104 486 85 104 81 64
105 486 85 104 81 64
104 486 86 103 81 62
105 486 86 103 81 62
104 486 87 102 80 61
105 486 87 102 80 61
104 486 88 101 79 60
105 486 88 101 79 60
104 486 89 101 79 59
105 486 89 101 79 59
104 486 90 102 78 58
106 486 90 102 78 58
104 486 91 103 78 58
106 486 91 103 78 58
105 486 92 104 79 59
106 486 92 104 79 59
105 486 93 103 79 59
106 486 93 103 79 59
106 486 94 102 78 58
107 486 94 102 78 58
106 486 95 101 77 57
107 486 95 101 77 57
105 487 80 103 78 60
107 487 80 103 78 60
105 487 81 105 80 61
107 487 81 105 80 61
105 487 82 107 82 63
107 487 82 107 82 63
105 487 83 109 84 66
107 487 83 109 84 66
105 487 84 109 84 66
107 487 84 109 84 66
105 487 85 109 84 65
107 487 85 109 84 65
105 487 86 110 85 66
107 487 86 110 85 66
105 487 87 109 84 65
107 487 87 109 84 65
105 487 88 112 87 68
107 487 88 112 87 68
105 487 89 112 86 67
107 487 89 112 86 67
105 487 90 111 85 65
107 487 90 111 85 65
105 487 91 110 84 64
107 487 91 110 84 64
105 487 92 110 84 64
107 487 92 110 84 64
106 487 93 109 83 63
108 487 93 109 83 63
106 487 94 108 82 62
108 487 94 108 82 62
107 487 95 106 80 60
108 487 95 106 80 60
106 488 80 104 75 56
108 488 80 104 75 56
106 488 81 107 78 59
108 488 81 107 78 59
106 488 82 110 81 62
108 488 82 110 81 62
106 488 83 113 84 65
108 488 83 113 84 65
106 488 84 115 86 67
108 488 84 115 86 67
107 488 85 116 87 68
109 488 85 116 87 68
107 488 86 116 87 68
109 488 86 116 87 68
107 488 87 115 86 67
109 488 87 115 86 67
107 488 88 114 85 66
109 488 88 114 85 66
107 488 89 112 83 64
109 488 89 112 83 64
107 488 90 109 80 61
109 488 90 109 80 61
107 488 91 107 78 59
109 488 91 107 78 59
106 488 92 105 76 57
108 488 92 105 76 57
107 488 93 103 74 55
109 488 93 103 74 55
108 488 94 102 73 54
109 488 94 102 73 54
108 488 95 101 73 54
110 488 95 101 73 54
107 489 80 104 75 56
109 489 80 104 75 56
108 489 81 109 80 61
109 489 81 109 80 61
108 489 82 114 85 66
109 489 82 114 85 66
108 489 83 118 89 70
109 489 83 118 89 70
108 489 84 120 91 72
110 489 84 120 91 72
108 489 85 122 93 74
109 489 85 122 93 74
108 489 86 123 94 75
110 489 86 123 94 75
108 489 87 122 93 74
110 489 87 122 93 74
108 489 88 120 91 72
110 489 88 120 91 72
108 489 89 117 88 69
110 489 89 117 88 69
108 489 90 114 85 66
110 489 90 114 85 66
108 489 91 110 81 62
110 489 91 110 81 62
108 489 92 107 78 59
110 489 92 107 78 59
109 489 93 104 75 56
110 489 93 104 75 56
109 489 94 103 74 55
111 489 94 103 74 55
110 489 95 103 74 55
111 489 95 103 74 55
109 490 80 103 74 55
110 490 80 103 74 55
109 490 81 109 80 61
110 490 81 109 80 61
109 490 82 115 86 67
110 490 82 115 86 67
109 490 83 120 91 72
111 490 83 120 91 72
109 490 84 124 95 76
111 490 84 124 95 76
109 490 85 126 97 78
111 490 85 126 97 78
109 490 86 127 98 79
111 490 86 127 98 79
109 490 87 127 98 79
111 490 87 127 98 79
109 490 88 125 96 77
111 490 88 125 96 77
109 490 89 122 93 74
111 490 89 122 93 74
110 490 90 119 90 71
111 490 90 119 90 71
110 490 91 115 86 67
111 490 91 115 86 67
110 490 92 111 82 63
111 490 92 111 82 63
110 490 93 109 80 61
112 490 93 109 80 61
110 490 94 107 78 59
112 490 94 107 78 59
111 490 95 105 77 58
112 490 95 105 77 58
110 491 80 101 72 53
111 491 80 101 72 53
110 491 81 107 78 59
111 491 81 107 78 59
110 491 82 113 84 65
112 491 82 113 84 65
110 491 83 118 89 70
112 491 83 118 89 70
110 491 84 122 93 74
112 491 84 122 93 74
110 491 85 125 96 77
112 491 85 125 96 77
111 491 86 127 98 79
112 491 86 127 98 79
111 491 87 127 98 79
113 491 87 127 98 79
111 491 88 126 97 78
113 491 88 126 97 78
111 491 89 125 96 77
113 491 89 125 96 77
111 491 90 122 93 74
113 491 90 122 93 74
111 491 91 119 90 71
113 491 91 119 90 71
112 491 92 117 88 69
113 491 92 117 88 69
112 491 93 114 85 66
113 491 93 114 85 66
112 491 94 113 84 65
113 491 94 113 84 65
113 490 95 111 83 65
113 491 95 110 82 63
111 492 80 99 70 51
112 492 80 99 70 51
111 492 81 104 75 56
113 492 81 104 75 56
111 492 82 109 80 61
113 492 82 109 80 61
112 492 83 114 85 66
113 492 83 114 85 66
112 492 84 117 88 69
113 492 84 117 88 69
112 492 85 121 92 73
114 492 85 121 92 73
112 492 86 123 94 75
114 492 86 123 94 75
112 492 87 124 95 76
114 492 87 124 95 76
113 492 88 125 96 77
114 492 88 125 96 77
113 492 89 125 96 77
114 492 89 125 96 77
113 492 90 124 95 76
115 492 90 124 95 76
113 492 91 123 94 75
115 492 91 123 94 75
113 492 92 122 93 74
115 492 92 122 93 74
113 492 93 121 92 73
115 492 93 121 92 73
113 492 94 119 90 71
114 492 94 119 90 71
114 491 95 117 90 71
114 492 95 117 89 70
112 493 80 98 69 50
113 493 80 98 69 50
112 493 81 101 72 53
114 493 81 101 72 53
112 493 82 104 75 56
114 493 82 104 75 56
112 493 83 108 79 60
114 493 83 108 79 60
113 493 84 111 82 63
114 493 84 111 82 63
113 493 85 114 85 66
115 493 85 114 85 66
113 493 86 117 88 69
115 493 86 117 88 69
114 493 87 119 90 71
115 493 87 119 90 71
114 493 88 121 92 73
116 493 88 121 92 73
114 493 89 123 94 75
116 493 89 123 94 75
114 493 90 125 96 77
116 493 90 125 96 77
114 493 91 126 97 78
116 493 91 126 97 78
114 493 92 126 97 78
116 493 92 126 97 78
115 493 93 127 98 79
116 493 93 127 98 79
115 493 94 126 97 78
116 493 94 126 97 78
115 491 94 120 92 76
115 492 94 120 93 76
112 494 80 97 68 49
114 494 80 97 68 49
113 494 81 99 70 51
114 494 81 99 70 51
113 494 82 101 72 53
114 494 82 101 72 53
113 494 83 103 74 55
115 494 83 103 74 55
114 494 84 106 77 58
115 494 84 106 77 58
114 494 85 109 80 61
115 494 85 109 80 61
114 494 86 112 83 64
116 494 86 112 83 64
115 494 87 115 86 67
116 494 87 115 86 67
115 494 88 119 90 71
116 494 88 119 90 71
115 494 89 121 92 73
117 494 89 121 92 73
115 494 90 124 95 76
117 494 90 124 95 76
115 494 91 127 98 79
117 494 91 127 98 79
113 495 80 99 70 51
114 495 80 99 70 51
113 495 81 100 71 52
115 495 81 100 71 52
113 495 82 101 72 53
115 495 82 101 72 53
114 495 83 103 74 55
115 495 83 103 74 55
114 495 84 105 76 57
116 495 84 105 76 57
115 495 85 108 79 60
116 495 85 108 79 60
115 495 86 111 82 63
116 495 86 111 82 63
115 495 87 114 85 66
117 495 87 114 85 66
115 495 88 118 89 70
117 495 88 118 89 70
116 495 89 121 92 73
117 495 89 121 92 73
116 495 90 124 95 76
117 495 90 124 95 76
116 495 91 127 98 79
118 495 91 127 98 79
113 496 80 104 75 56
114 496 80 104 75 56
113 496 81 105 76 57
114 496 81 105 76 57
114 496 82 107 78 59
115 496 82 107 78 59
114 496 83 109 80 61
115 496 83 109 80 61
114 496 84 111 82 63
116 496 84 111 82 63
115 496 85 113 84 65
116 496 85 113 84 65
115 496 86 116 87 68
116 496 86 116 87 68
116 496 87 118 89 70
117 496 87 118 89 70
116 496 88 121 92 73
117 496 88 121 92 73
116 496 89 123 94 75
117 496 89 123 94 75
116 496 90 125 96 77
118 496 90 125 96 77
118 495 90 123 96 76
118 496 91 127 98 79
113 497 80 112 83 64
114 497 80 112 83 64
113 497 81 114 85 66
114 497 81 114 85 66
114 497 82 117 88 69
115 497 82 117 88 69
114 497 83 119 90 71
115 497 83 119 90 71
114 497 84 122 93 74
116 497 84 122 93 74
115 497 85 124 95 76
116 497 85 124 95 76
115 497 86 126 97 78
116 497 86 126 97 78
115 497 87 127 98 79
117 497 87 127 98 79
116 497 88 128 99 80
117 497 88 128 99 80
116 497 89 128 99 80
117 497 89 128 99 80
117 496 89 123 94 75
118 497 90 128 99 80
118 495 90 123 96 76
119 496 90 120 94 73
113 498 80 122 93 74
114 498 80 122 93 74
113 498 81 127 98 79
114 498 81 127 98 79
113 498 82 131 102 83
115 498 82 131 102 83
114 498 83 134 105 86
115 498 83 134 105 86
114 498 84 137 108 89
115 498 84 137 108 89
115 498 85 139 110 91
116 498 85 139 110 91
115 498 86 139 110 91
116 498 86 139 110 91
115 498 87 139 110 91
116 498 87 139 110 91
112 499 80 135 106 87
113 499 80 135 106 87
113 499 81 141 112 93
114 499 81 141 112 93
113 499 82 146 117 98
114 499 82 146 117 98
113 499 83 151 122 103
114 499 83 151 122 103
114 499 84 153 124 105
115 499 84 153 124 105
114 499 85 154 125 106
115 499 85 154 125 106
114 499 86 154 125 106
115 499 86 154 125 106
115 499 87 152 123 104
116 499 87 152 123 104
112 500 80 148 119 100
113 500 80 148 119 100
112 500 81 155 126 107
113 500 81 155 126 107
113 500 82 161 132 113
114 500 82 161 132 113
113 500 83 165 136 117
114 500 83 165 136 117
113 500 84 168 139 120
114 500 84 168 139 120
113 500 85 168 139 120
114 500 85 168 139 120
115 499 85 154 125 106
115 500 86 166 137 118
115 499 86 154 125 106
116 499 86 142 115 95
112 501 80 161 132 113
112 501 81 167 138 119
113 501 81 167 138 119
112 501 82 173 144 125
113 501 82 173 144 125
112 501 83 177 148 129
113 501 83 177 148 129
113 501 84 178 149 130
114 500 84 168 139 120
114 501 85 177 148 129
114 500 84 168 139 120
115 500 85 154 126 107
115 500 85 154 126 107
108 486 96 99 75 55
108 486 97 98 73 53
109 486 98 98 72 52
110 486 99 99 73 53
110 486 100 99 74 54
110 486 101 99 75 55
110 486 102 100 76 56
111 484 102 105 81 67
108 487 96 103 78 59
109 487 96 103 78 59
109 487 97 100 75 56
110 487 98 99 74 55
111 487 99 100 75 56
111 487 100 101 76 57
111 487 101 101 77 58
111 487 102 102 78 59
112 485 102 104 82 69
109 488 96 101 75 56
110 488 96 101 75 56
110 488 97 100 74 56
111 488 98 101 76 58
111 488 99 100 76 58
111 488 100 101 77 59
111 488 101 102 78 60
112 488 102 103 79 61
113 486 102 104 83 70
111 489 96 102 75 56
111 489 97 100 74 56
112 489 98 101 76 58
112 489 99 100 76 58
112 489 100 101 77 59
112 489 101 102 78 60
113 487 101 104 85 72
113 487 101 104 85 72
112 501 65 151 115 88
112 501 64 152 114 86
111 501 66 152 120 98
